     -44.0     280.0     -23.0
      -7.0     259.0     -23.0
     -10.0     258.0     -36.0
     -14.0     262.0     -48.0
     -20.0     268.0     -60.0
     -28.0     279.0     -69.0
     -37.0     294.0     -74.0
     -43.0     313.0     -69.0
     -43.0     322.0     -53.0
     -40.0     325.0     -37.0
     -36.0     326.0     -22.0
     -31.0     322.0      -7.0
     -24.0     313.0       4.0
     -17.0     301.0      10.0
     -10.0     286.0      10.0
      -6.0     274.0       2.0
      -5.0     264.0     -10.0
      25.0     262.0     -29.0
      20.0     263.0     -45.0
      14.0     267.0     -60.0
       7.0     276.0     -72.0
      -2.0     288.0     -84.0
     -14.0     308.0     -92.0
     -22.0     330.0     -85.0
     -21.0     340.0     -64.0
     -17.0     344.0     -45.0
     -13.0     345.0     -27.0
      -6.0     341.0      -9.0
       2.0     331.0       5.0
      12.0     316.0      13.0
      20.0     298.0      12.0
      24.0     281.0       3.0
      26.0     270.0     -12.0
      42.0     271.0     -33.0
      38.0     271.0     -49.0
      32.0     274.0     -64.0
      24.0     284.0     -77.0
      15.0     297.0     -89.0
       4.0     315.0     -97.0
      -3.0     337.0     -90.0
      -2.0     347.0     -69.0
      -0.5     349.0     -59.5
       6.0     351.0     -33.0
      12.0     347.0     -16.0
      20.0     338.0      -1.0
      30.0     323.0       8.0
      38.0     305.0       8.0
      43.0     289.0      -1.0
      44.0     276.0     -15.0
      57.0     285.0     -39.0
      53.0     286.0     -53.0
      48.0     289.0     -64.0
      41.0     296.0     -77.0
      34.0     307.0     -87.0
      23.0     324.0     -97.0
      17.0     342.0     -90.0
      19.0     350.0     -70.0
      22.0     352.0     -53.0
      27.0     351.0     -39.0
      32.0     348.0     -24.0
      38.0     343.0     -10.0
      47.0     330.0       0.0
      55.0     313.0       1.0
      59.0     298.0      -9.0
      60.0     288.0     -23.0
      71.0     300.0     -46.0
      68.0     301.0     -56.0
      64.0     304.0     -66.0
      59.0     309.0     -75.0
      52.0     317.0     -84.0
      43.0     331.0     -93.0
      38.0     347.0     -87.0
      40.0     353.0     -71.0
      43.0     354.0     -57.0
      47.0     353.0     -45.0
      51.0     350.0     -34.0
      57.0     345.0     -22.0
      63.0     336.0     -13.0
      70.0     321.0     -11.0
      75.0     307.0     -18.0
      74.0     301.0     -33.0
      83.0     319.0     -53.0
      81.0     319.0     -58.0
      79.0     321.0     -63.0
      76.0     324.0     -69.0
      73.0     328.0     -74.0
      69.0     335.0     -76.0
      66.0     344.0     -74.0
      65.0     350.0     -67.0
      67.0     350.0     -59.0
      69.0     350.0     -52.0
      72.0     347.0     -46.0
      75.0     344.0     -40.0
      79.0     339.0     -35.0
      83.0     331.0     -32.0
      85.0     323.0     -37.0
      85.0     320.0     -45.0
      79.0     336.0     -57.0
