 -62.00    75.00   -25.00
 -50.00    75.00   -51.00
 -25.00    75.00   -76.00
   0.00    75.00   -86.00
  25.00    75.00   -76.00
  50.00    75.00   -51.00
  62.00    75.00   -25.00
  50.00    75.00    11.00
  25.00    75.00    33.00
   0.00    75.00    40.00
 -25.00    75.00    33.00
 -50.00    75.00    11.00
 -75.00    98.00     0.00
   0.00   106.00   -78.00
  75.00    98.00     0.00
  50.00   119.00    49.00
   0.00   117.00    53.00
 -50.00   119.00    49.00
-175.00   140.00    10.00
-150.00   140.00    15.00
-125.00   135.00    17.00
-100.00   130.00    15.00
 -75.00   125.00   -30.00
 -50.00   125.00   -55.00
 -25.00   125.00   -66.00
   0.00   125.00   -74.00
  25.00   125.00   -66.00
  50.00   125.00   -55.00
  75.00   125.00   -30.00
 100.00   130.00    15.00
 125.00   135.00    17.00
 150.00   140.00    15.00
 175.00   140.00    10.00
  75.00   140.00    61.00
  25.00   140.00    63.00
 -25.00   140.00    63.00
 -75.00   140.00    61.00
-210.00   161.00     0.00
-125.00   165.00   -40.00
-100.00   163.00   -51.00
 -75.00   161.00   -61.00
 -50.00   159.00   -67.00
 -25.00   157.00   -72.00
   0.00   155.00   -72.00
  25.00   157.00   -72.00
  50.00   159.00   -67.00
  75.00   161.00   -61.00
 100.00   163.00   -51.00
 125.00   165.00   -40.00
 150.00   161.00   -30.00
 210.00   161.00     0.00
 150.00   161.00    61.00
 100.00   161.00    74.00
  50.00   160.00    79.00
   0.00   158.00    66.00
 -50.00   160.00    79.00
-100.00   161.00    74.00
-150.00   161.00    61.00
-198.00   175.00   -43.00
-150.00   161.00   -30.00
-100.00   184.00   -64.00
 -50.00   182.00   -80.00
 -25.00   181.00   -83.00
   0.00   179.00   -78.00
  25.00   181.00   -83.00
  50.00   182.00   -80.00
  75.00   183.00   -73.00
 100.00   184.00   -64.00
 125.00   185.00   -52.00
 198.00   175.00   -43.00
 197.00   175.00    41.00
 125.00   175.00    80.00
  75.00   180.00    94.00
  25.00   180.00    87.00
 -25.00   180.00    87.00
 -75.00   180.00    94.00
-125.00   175.00    80.00
-197.00   175.00    41.00
-232.00   202.00     0.00
-125.00   209.00   -61.00
 -75.00   207.00   -77.00
 -50.00   206.00   -84.00
 -25.00   205.00   -84.00
   0.00   203.00   -85.00
  25.00   205.00   -84.00
  50.00   206.00   -84.00
  75.00   207.00   -77.00
 100.00   208.00   -71.00
 125.00   209.00   -61.00
 160.00   202.00   -48.00
 232.00   202.00     0.00
 150.00   202.00    96.00
 100.00   202.00   105.00
  50.00   202.00   107.00
   0.00   202.00    89.00
 -50.00   202.00   107.00
-100.00   202.00   105.00
-150.00   202.00    96.00
-234.00   225.00     0.00
-198.00   225.00   -40.00
-160.00   202.00   -48.00
-100.00   230.00   -82.00
 -50.00   229.00   -95.00
 -25.00   228.00   -95.00
   0.00   227.00   -93.00
  25.00   228.00   -95.00
  50.00   229.00   -95.00
  75.00   230.00   -90.00
 100.00   230.00   -82.00
 125.00   230.00   -72.00
 198.00   225.00   -40.00
 234.00   225.00     0.00
 227.00   225.00    59.00
 125.00   225.00   110.00
  75.00   225.00   116.00
  25.00   225.00   104.00
 -25.00   225.00   104.00
 -75.00   225.00   116.00
-125.00   225.00   110.00
-227.00   225.00    59.00
-176.00   250.00     0.00
-166.00   250.00   -55.00
-124.00   252.00   -87.00
 -75.00   252.00  -101.00
 -50.00   252.00  -105.00
 -25.00   251.00  -104.00
   0.00   251.00  -101.00
  25.00   251.00  -104.00
  50.00   252.00  -105.00
  75.00   252.00  -101.00
 100.00   252.00   -95.00
 124.00   252.00   -87.00
 155.00   250.00   -71.00
 170.00   250.00   -35.00
 176.00   250.00     0.00
 183.00   250.00    49.00
 148.00   250.00    91.00
 100.00   250.00   110.00
  50.00   250.00   112.00
   0.00   250.00   103.00
 -50.00   250.00   112.00
-100.00   250.00   110.00
-148.00   250.00    91.00
-183.00   250.00    49.00
-157.00   275.00   -50.00
-100.00   276.00  -104.00
 -50.00   276.00  -114.00
 -25.00   275.00  -112.00
   0.00   275.00  -108.00
  25.00   275.00  -112.00
  50.00   276.00  -114.00
  75.00   276.00  -111.00
 100.00   276.00  -104.00
 122.00   276.00   -94.00
 147.00   275.00   -67.00
 162.00   275.00   -34.00
 173.00   275.00    45.00
 124.00   275.00    95.00
  75.00   275.00   108.00
  25.00   275.00   107.00
 -25.00   275.00   107.00
 -75.00   275.00   108.00
-124.00   275.00    95.00
-173.00   275.00    45.00
-165.00   300.00     0.00
-121.00   300.00   -90.00
 -75.00   300.00  -115.00
 -50.00   300.00  -118.00
 -25.00   300.00  -116.00
   0.00   300.00  -112.00
  25.00   300.00  -116.00
  50.00   300.00  -118.00
  63.00   312.00  -117.00
  75.00   300.00  -115.00
 100.00   300.00  -105.00
 121.00   300.00   -90.00
 152.00   300.00   -47.00
 165.00   300.00     0.00
 145.00   300.00    75.00
  99.00   300.00    97.00
  50.00   300.00   105.00
   0.00   300.00    99.00
 -50.00   300.00   105.00
 -99.00   300.00    97.00
-145.00   300.00    75.00
-145.00   325.00   -41.00
-100.00   325.00  -101.00
 -50.00   325.00  -117.00
 -25.00   325.00  -116.00
   0.00   325.00  -115.00
  25.00   325.00  -116.00
  50.00   325.00  -117.00
  75.00   325.00  -113.00
 100.00   325.00  -101.00
 120.00   325.00   -84.00
 138.00   325.00   -57.00
 150.00   325.00   -29.00
 158.00   325.00     0.00
 158.00   325.00    40.00
 123.00   325.00    80.00
  75.00   325.00    98.00
  25.00   325.00    98.00
 -25.00   325.00    98.00
 -75.00   325.00    98.00
-123.00   325.00    80.00
-158.00   325.00    40.00
-155.00   350.00     0.00
-120.00   350.00   -78.00
 -75.00   350.00  -105.00
 -50.00   350.00  -112.00
 -25.00   350.00  -112.00
   0.00   350.00  -115.00
  25.00   350.00  -112.00
  50.00   350.00  -112.00
  75.00   350.00  -105.00
 100.00   350.00   -95.00
 120.00   350.00   -78.00
 146.00   350.00   -40.00
 153.00   350.00     0.00
 142.00   350.00    62.00
  99.00   350.00    89.00
  50.00   350.00   100.00
   0.00   349.00    87.00
 -50.00   350.00   100.00
 -99.00   350.00    89.00
-142.00   350.00    62.00
-142.00   375.00   -41.00
-100.00   375.00   -88.00
 -50.00   375.00  -109.00
 -25.00   375.00  -113.00
   0.00   375.00  -115.00
  25.00   375.00  -113.00
  50.00   375.00  -109.00
  75.00   375.00  -101.00
 100.00   375.00   -88.00
 119.00   375.00   -73.00
 137.00   375.00   -57.00
 148.00   375.00   -30.00
 150.00   375.00    -1.00
 146.00   375.00    39.00
 121.00   375.00    74.00
  75.00   375.00    92.00
  25.00   375.00    88.00
 -25.00   375.00    88.00
 -75.00   375.00    92.00
-121.00   375.00    74.00
-147.00   375.00    38.00
-150.00   400.00     0.00
-119.00   400.00   -65.00
 -75.00   400.00   -98.00
 -50.00   400.00  -109.00
 -25.00   400.00  -115.00
   0.00   400.00  -115.00
  25.00   400.00  -115.00
  50.00   400.00  -109.00
  75.00   400.00   -98.00
 100.00   400.00   -82.00
 119.00   400.00   -65.00
 143.00   400.00   -36.00
 148.00   400.00     0.00
 138.00   400.00    51.00
  98.00   400.00    81.00
  50.00   400.00    93.00
   0.00   399.00    78.00
 -50.00   400.00    93.00
 -98.00   400.00    81.00
-138.00   400.00    51.00
-140.00   425.00   -32.00
-100.00   425.00   -77.00
 -50.00   425.00  -109.00
 -25.00   425.00  -115.00
   0.00   425.00  -115.00
  25.00   425.00  -115.00
  50.00   425.00  -109.00
  75.00   425.00   -96.00
 100.00   425.00   -77.00
 119.00   425.00   -59.00
 140.00   425.00   -32.00
 147.00   425.00     0.00
 145.00   425.00    18.00
 119.00   425.00    65.00
  75.00   425.00    85.00
  25.00   425.00    82.00
 -25.00   425.00    82.00
 -75.00   425.00    85.00
-119.00   425.00    65.00
-145.00   425.00    18.00
-146.00   450.00     0.00
-118.00   450.00   -59.00
 -75.00   450.00   -93.00
 -50.00   450.00  -107.00
 -25.00   450.00  -116.00
   0.00   450.00  -115.00
  25.00   450.00  -116.00
  50.00   450.00  -107.00
  75.00   450.00   -93.00
 100.00   450.00   -75.00
 118.00   450.00   -59.00
 140.00   450.00   -32.00
 146.00   450.00     0.00
 135.00   450.00    33.00
  98.00   450.00    68.00
  50.00   450.00    84.00
   0.00   449.00    75.00
 -50.00   450.00    84.00
 -98.00   450.00    68.00
-135.00   450.00    33.00
-137.00   475.00   -30.00
-100.00   475.00   -71.00
 -50.00   475.00  -106.00
   0.00   475.00  -115.00
  50.00   475.00  -106.00
 100.00   475.00   -71.00
 137.00   475.00   -30.00
 141.00   475.00    16.00
 116.00   475.00    49.00
  75.00   475.00    77.00
  25.00   475.00    81.00
 -25.00   475.00    81.00
 -75.00   475.00    77.00
-116.00   475.00    49.00
-141.00   475.00    16.00
-143.00   500.00     0.00
-118.00   500.00   -64.00
 -75.00   500.00   -95.00
 -25.00   500.00  -115.00
  25.00   500.00  -115.00
  75.00   500.00   -95.00
 118.00   500.00   -64.00
 143.00   500.00     0.00
 129.00   500.00    32.00
  98.00   500.00    65.00
  50.00   500.00    79.00
   0.00   500.00    76.00
 -50.00   500.00    79.00
 -98.00   500.00    65.00
-129.00   500.00    32.00
-144.00   525.00   -37.00
-100.00   525.00   -78.00
 -50.00   525.00  -110.00
   0.00   525.00  -114.00
  50.00   525.00  -110.00
 100.00   525.00   -78.00
 144.00   525.00   -37.00
 142.00   525.00    17.00
 118.00   525.00    53.00
  75.00   525.00    76.00
  25.00   525.00    76.00
 -25.00   525.00    76.00
 -75.00   525.00    76.00
-118.00   525.00    53.00
-142.00   525.00    17.00
