  -14.74    31.08   226.08 
  -17.51    23.25   229.53 
  -23.20    17.32   241.81 
  -31.88    16.31   257.81 
  -39.90    15.74   269.23 
  -43.14    18.40   283.71 
  -41.90    18.68   294.94 
  -11.66    22.70   226.08 
  -18.75    13.92   235.74 
  -26.21    14.37   251.93 
  -32.54    11.76   265.65 
  -37.91    10.43   279.44 
  -34.95    10.45   291.48 
   -4.09    17.64   223.63 
  -10.44     9.31   232.00 
  -19.05     5.17   249.71 
  -23.56     6.93   264.16 
  -30.38     4.34   276.58 
  -29.82     4.45   289.52 
    3.74    25.04   223.38 
   -2.39     4.59   233.15 
   -9.21     2.03   244.24 
  -14.39     1.69   261.54 
  -20.56     0.41   276.33 
  -22.87     0.79   290.89 
    7.20     4.65   234.66 
    2.11    -0.18   246.10 
   -5.92    -2.28   258.23 
  -11.60    -1.37   273.77 
  -15.90    -1.36   289.96 
   15.45    11.64   231.32 
   11.30     2.67   245.53 
    4.78    -2.23   258.62 
    4.46    -2.11   271.23 
    7.93    31.68   226.50 
   15.90    24.92   228.62 
   20.68    11.07   241.63 
   13.61     1.14   258.03 
   10.77     0.60   275.05 
   17.21    30.94   233.33 
   24.30    20.70   240.42 
   22.71     9.63   256.31 
   18.31     5.35   276.19 
   25.25    29.31   242.19 
   27.19    16.58   255.74 
   23.33    10.32   272.57 
   11.18     6.67   292.60 
   23.77    39.67   246.65 
   30.05    25.61   258.05 
   28.15    19.60   274.48 
   19.87    14.04   292.04 
   29.32    36.74   257.42 
   29.90    27.76   275.78 
   23.85    20.39   290.66 
   30.11    39.58   270.71 
   29.31    33.18   284.87 
   25.27    28.32   304.72 
   13.23    41.48   237.17 
   19.81    46.95   251.52 
   24.46    47.29   258.20 
   26.95    49.87   270.39 
   25.58    54.24   283.40 
    1.31    38.45   230.42 
    8.15    47.80   242.61 
   11.79    54.23   252.59 
   -2.44    43.51   235.31 
    2.22    51.92   244.53 
    5.83    59.24   256.82 
   10.45    61.35   265.77 
   11.06    62.23   274.14 
   18.49    59.88   278.04 
   15.44    66.49   287.48 
   -8.41    40.86   233.47 
   -3.52    51.19   245.71 
    0.32    57.20   257.46 
   -8.24    48.55   242.51 
   -6.96    54.58   253.20 
   -1.68    60.44   266.44 
    1.64    63.92   277.87 
    6.67    66.64   284.37 
  -16.62    47.38   242.74 
  -12.50    57.52   254.38 
   -6.91    60.69   265.92 
  -18.69    56.14   252.99 
  -13.86    61.67   265.74 
   -9.73    64.53   277.44 
    1.16    69.34   286.94 
  -13.60    37.14   231.93 
  -23.44    45.80   243.49 
  -25.23    52.00   251.07 
  -21.50    59.49   262.94 
  -14.57    63.33   276.55 
   -8.55    68.07   288.63 
  -27.20    56.55   260.13 
  -23.83    61.85   274.22 
  -15.09    65.10   290.45 
  -28.81    38.45   241.18 
  -34.99    51.57   259.48 
  -29.22    59.01   271.68 
  -23.72    60.75   286.56 
  -16.51    66.24   300.10 
  -37.54    42.20   253.14 
  -35.30    55.49   270.83 
  -29.55    58.76   285.95 
  -22.23    62.90   303.33 
  -40.44    47.99   268.32 
  -38.18    53.37   284.77 
  -31.65    55.74   297.51 
  -33.67    53.20   305.99 
  -30.36    30.80   238.86 
  -39.41    35.01   253.02 
  -42.29    41.22   264.38 
  -43.26    45.59   278.83 
  -41.01    47.07   293.48 
  -38.10    26.32   250.90 
  -44.09    32.00   265.20 
  -46.14    38.62   278.85 
  -44.16    42.34   290.61 
  -40.46    42.90   301.16 
  -43.31    25.51   262.72 
  -46.63    30.25   276.01 
  -45.27    35.30   289.31 
  -16.59    27.30   228.40 
  -22.83    26.20   233.55 
  -31.25    20.37   244.80 
  -38.39    17.67   257.13 
  -42.93    16.52   271.58 
  -45.35    22.44   285.70 
