  88.80     9.30     0.00
  91.50    31.50     0.00
  91.20    52.60     0.00
  89.00    73.40     0.00
  81.10    93.30     0.00
  64.80   112.30     0.00
  43.00   121.30     0.00
  17.90   127.40     0.00
  -9.10   129.50     0.00
 -27.40   128.80     0.00
 -46.00   126.50     0.00
 -66.00   121.50     0.00
 -83.80   115.30     0.00
-106.50   102.90     0.00
-125.00    87.50     0.00
-135.60    69.10     0.00
-140.30    45.60     0.00
-133.20    18.70     0.00
-125.50     0.00     0.00
-115.60   -18.30     0.00
 -99.50   -32.30     0.00
 -82.60   -43.90     0.00
 -59.30   -53.40     0.00
 -39.40   -58.50     0.00
 -23.20   -60.50     0.00
  -8.50   -60.60     0.00
   8.10   -57.80     0.00
  21.90   -54.30     0.00
  37.40   -47.90     0.00
  52.40   -39.50     0.00
  67.80   -28.10     0.00
  79.90   -12.70     0.00
 -30.30   -50.60     0.00
 -10.30   -50.60     0.00
 -70.30   -30.60     0.00
 -50.30   -30.60     0.00
 -30.30   -30.60     0.00
 -10.30   -30.60     0.00
   9.70   -30.60     0.00
  29.70   -30.60     0.00
 -90.30   -10.60     0.00
 -70.30   -10.60     0.00
 -50.30   -10.60     0.00
 -30.30   -10.60     0.00
 -10.30   -10.60     0.00
   9.70   -10.60     0.00
  29.70   -10.60     0.00
  49.70   -10.60     0.00
  69.70   -10.60     0.00
-110.30     9.40     0.00
 -90.30     9.40     0.00
 -70.30     9.40     0.00
 -50.30     9.40     0.00
 -30.30     9.40     0.00
 -10.30     9.40     0.00
   9.70     9.40     0.00
  29.70     9.40     0.00
  49.70     9.40     0.00
  69.70     9.40     0.00
-130.30    29.40     0.00
-110.30    29.40     0.00
 -90.30    29.40     0.00
 -70.30    29.40     0.00
 -50.30    29.40     0.00
 -30.30    29.40     0.00
 -10.30    29.40     0.00
   9.70    29.40     0.00
  29.70    29.40     0.00
  49.70    29.40     0.00
  69.70    29.40     0.00
-130.30    49.40     0.00
-110.30    49.40     0.00
 -90.30    49.40     0.00
 -70.30    49.40     0.00
 -50.30    49.40     0.00
 -30.30    49.40     0.00
 -10.30    49.40     0.00
   9.70    49.40     0.00
  29.70    49.40     0.00
  49.70    49.40     0.00
  69.70    49.40     0.00
-110.30    69.40     0.00
 -90.30    69.40     0.00
 -70.30    69.40     0.00
 -50.30    69.40     0.00
 -30.30    69.40     0.00
 -10.30    69.40     0.00
   9.70    69.40     0.00
  29.70    69.40     0.00
  49.70    69.40     0.00
  69.70    69.40     0.00
-110.30    89.40     0.00
 -90.30    89.40     0.00
 -70.30    89.40     0.00
 -50.30    89.40     0.00
 -30.30    89.40     0.00
 -10.30    89.40     0.00
   9.70    89.40     0.00
  29.70    89.40     0.00
  49.70    89.40     0.00
  69.70    89.40     0.00
 -70.30   109.40     0.00
 -50.30   109.40     0.00
 -30.30   109.40     0.00
 -10.30   109.40     0.00
   9.70   109.40     0.00
  29.70   109.40     0.00
  49.70   109.40     0.00
  87.10    10.70    22.30
  89.00    30.70    22.30
  90.40    52.20    22.30
  87.40    73.30    22.30
  77.50    92.30    22.30
  61.50   111.00    22.30
  41.50   120.60    22.30
  16.40   124.90    22.30
  -6.60   126.20    22.30
 -27.00   126.80    22.30
 -45.10   123.80    22.30
 -64.00   120.40    22.30
 -83.90   115.50    22.30
-106.20   106.20    22.30
-122.90    89.30    22.30
-134.90    68.70    22.30
-138.10    47.60    22.30
-130.80    21.90    22.30
-123.20     1.10    22.30
-113.70   -17.00    22.30
 -98.60   -30.10    22.30
 -83.60   -42.60    22.30
 -61.60   -53.50    22.30
 -41.70   -59.50    22.30
 -26.10   -63.10    22.30
  -9.50   -63.40    22.30
   6.40   -60.60    22.30
  20.70   -55.40    22.30
  37.60   -48.10    22.30
  52.60   -38.20    22.30
  65.90   -28.00    22.30
  79.90   -11.20    22.30
  85.90     9.00    44.50
  87.50    30.10    44.50
  90.50    52.20    44.50
  86.00    72.10    44.50
  75.80    90.40    44.50
  59.80   107.80    44.50
  38.50   118.60    44.50
  14.90   121.20    44.50
  -6.40   122.80    44.50
 -26.10   122.80    44.50
 -43.70   120.00    44.50
 -60.20   118.20    44.50
 -80.80   115.40    44.50
-105.60   105.60    44.50
-121.40    88.20    44.50
-131.20    69.80    44.50
-135.40    49.30    44.50
-128.60    22.70    44.50
-121.40     2.10    44.50
-110.40   -14.50    44.50
 -96.20   -29.40    44.50
 -81.70   -41.60    44.50
 -62.40   -54.20    44.50
 -43.80   -60.30    44.50
 -28.20   -64.80    44.50
 -12.10   -65.10    44.50
   4.40   -63.20    44.50
  19.10   -58.70    44.50
  35.10   -52.00    44.50
  51.80   -40.50    44.50
  65.40   -27.10    44.50
  78.90   -11.10    44.50
  86.00     8.30    66.80
  87.50    30.10    66.80
  90.60    52.30    66.80
  83.50    72.60    66.80
  71.80    90.20    66.80
  55.10   103.60    66.80
  33.30   112.30    66.80
  12.10   115.20    66.80
  -9.10   116.10    66.80
 -26.60   115.00    66.80
 -42.40   113.50    66.80
 -62.50   112.80    66.80
 -79.80   109.90    66.80
-100.70   100.70    66.80
-118.00    85.80    66.80
-127.00    70.40    66.80
-133.10    48.40    66.80
-126.20    24.50    66.80
-119.90     4.20    66.80
-109.70   -13.50    66.80
 -95.60   -28.30    66.80
 -81.30   -41.40    66.80
 -62.80   -56.50    66.80
 -45.20   -64.60    66.80
 -27.90   -68.90    66.80
 -12.20   -69.00    66.80
   5.30   -67.10    66.80
  21.20   -61.40    66.80
  38.70   -53.30    66.80
  54.80   -41.30    66.80
  66.40   -29.50    66.80
  78.30   -11.00    66.80
  84.80     7.40    89.10
  86.80    29.90    89.10
  88.10    55.00    89.10
  80.30    73.60    89.10
  68.50    89.30    89.10
  49.60   101.70    89.10
  29.20   108.90    89.10
   9.80   112.50    89.10
  -8.00   113.80    89.10
 -26.90   112.20    89.10
 -43.70   111.00    89.10
 -63.10   109.30    89.10
 -80.10   106.30    89.10
-100.30    96.80    89.10
-116.80    84.80    89.10
-126.90    70.30    89.10
-132.10    50.70    89.10
-124.60    26.50    89.10
-118.70     6.20    89.10
-110.40   -12.60    89.10
 -98.50   -28.20    89.10
 -83.90   -42.80    89.10
 -65.00   -56.50    89.10
 -47.90   -66.00    89.10
 -29.80   -70.20    89.10
 -13.80   -70.80    89.10
   3.60   -68.40    89.10
  20.40   -62.70    89.10
  37.30   -53.20    89.10
  52.70   -41.20    89.10
  66.20   -28.10    89.10
  78.50   -11.00    89.10
  77.50   -10.90   111.40
  83.60    11.80   111.40
  84.10    31.40   111.40
  85.60    57.70   111.40
  83.30    67.40   111.40
  75.70    79.80   111.40
  63.30    93.90   111.40
  46.30   104.00   111.40
  28.00   112.40   111.40
   8.20   117.60   111.40
 -10.30   117.80   111.40
 -27.70   115.40   111.40
 -44.00   114.70   111.40
 -63.60   112.50   111.40
 -81.90   108.70   111.40
-101.90   101.90   111.40
-118.90    89.60   111.40
-127.00    76.30   111.40
-131.80    61.40   111.40
-131.40    47.80   111.40
-124.00    28.60   111.40
-117.90     6.20   111.40
-113.00   -11.90   111.40
-100.50   -28.80   111.40
 -84.20   -43.80   111.40
 -65.90   -56.30   111.40
 -49.20   -65.20   111.40
 -32.00   -68.70   111.40
 -14.30   -70.10   111.40
   3.50   -67.60   111.40
  20.10   -61.80   111.40
  37.60   -51.80   111.40
  51.60   -41.80   111.40
  65.80   -25.90   111.40
  76.60    -8.00   133.60
  83.00    11.70   133.60
  84.70    34.20   133.60
  85.20    57.50   133.60
  83.10    69.70   133.60
  76.50    85.00   133.60
  64.00    98.60   133.60
  47.10   111.00   133.60
  27.70   119.80   133.60
   8.70   125.00   133.60
 -11.10   126.50   133.60
 -26.90   126.40   133.60
 -47.50   123.90   133.60
 -62.00   121.70   133.60
 -83.60   115.10   133.60
 -99.90   109.00   133.60
-119.90    93.70   133.60
-127.30    81.10   133.60
-131.30    66.90   133.60
-131.10    50.30   133.60
-125.20    28.90   133.60
-121.80     6.40   133.60
-115.00   -12.10   133.60
-102.20   -29.30   133.60
 -85.80   -43.70   133.60
 -66.70   -57.00   133.60
 -49.40   -63.20   133.60
 -31.60   -67.80   133.60
 -14.60   -68.60   133.60
   3.50   -66.60   133.60
  18.80   -59.70   133.60
  35.60   -49.00   133.60
  50.20   -37.90   133.60
  63.40   -24.40   133.60
  76.80    -8.10   155.90
  84.70    11.90   155.90
  88.20    33.90   155.90
  89.10    60.10   155.90
  86.10    76.20   155.90
  77.50    92.40   155.90
  66.60   106.60   155.90
  47.70   118.20   155.90
  29.20   126.30   155.90
   9.20   131.10   155.90
  -9.30   132.50   155.90
 -28.40   133.40   155.90
 -47.30   133.60   155.90
 -64.50   132.30   155.90
 -81.90   126.10   155.90
-100.60   117.80   155.90
-120.10   100.70   155.90
-128.40    88.20   155.90
-136.40    69.50   155.90
-132.40    50.80   155.90
-131.10    29.10   155.90
-125.30     7.70   155.90
-117.40   -11.30   155.90
-103.80   -28.80   155.90
 -85.50   -43.60   155.90
 -67.20   -54.40   155.90
 -50.90   -62.90   155.90
 -32.50   -66.60   155.90
 -14.20   -66.60   155.90
   2.20   -62.50   155.90
  18.00   -55.30   155.90
  33.70   -46.40   155.90
  49.90   -36.20   155.90
  63.90   -23.20   155.90
  77.70    -8.20   178.20
  89.60    12.60   178.20
  93.50    35.00   178.20
  93.00    65.10   178.20
  90.80    83.20   178.20
  81.20   100.30   178.20
  67.80   112.80   178.20
  48.00   125.00   178.20
  30.40   131.60   178.20
   9.90   141.60   178.20
  -9.70   138.20   178.20
 -29.50   139.00   178.20
 -46.80   139.80   178.20
 -64.90   139.30   178.20
 -84.40   135.00   178.20
-101.50   125.30   178.20
-124.20   107.90   178.20
-133.00    96.70   178.20
-141.50    75.20   178.20
-141.00    57.00   178.20
-135.40    31.30   178.20
-128.50     9.00   178.20
-119.80    -9.40   178.20
-103.30   -26.70   178.20
 -86.00   -40.10   178.20
 -68.70   -51.80   178.20
 -51.90   -59.70   178.20
 -33.00   -64.70   178.20
 -14.60   -63.40   178.20
   2.10   -58.90   178.20
  16.90   -52.00   178.20
  32.50   -43.90   178.20
  48.20   -35.00   178.20
  63.70   -23.20   178.20
  77.30    -7.40   200.50
  90.40    11.10   200.50
  94.90    38.30   200.50
  98.30    67.50   200.50
  95.00    88.60   200.50
  85.70   105.80   200.50
  67.80   119.90   200.50
  48.70   130.30   200.50
  31.60   137.10   200.50
  11.10   141.60   200.50
  -7.50   142.90   200.50
 -27.70   142.60   200.50
 -45.10   143.10   200.50
 -65.00   142.60   200.50
 -82.70   140.50   200.50
-100.20   133.00   200.50
-122.10   120.00   200.50
-136.40   106.50   200.50
-146.10    81.00   200.50
-145.80    64.90   200.50
-137.70    34.30   200.50
-130.50     9.10   200.50
-119.50    -7.30   200.50
-102.10   -23.60   200.50
 -85.50   -36.30   200.50
 -70.30   -47.40   200.50
 -54.30   -56.30   200.50
 -35.00   -61.80   200.50
 -16.50   -61.50   200.50
   0.50   -57.50   200.50
  17.30   -50.20   200.50
  31.70   -42.80   200.50
  48.40   -33.30   200.50
  63.10   -22.30   200.50
  80.20    -7.00   222.70
  92.00    11.30   222.70
  99.40    40.20   222.70
 103.40    72.40   222.70
  99.00    92.40   222.70
  86.30   112.50   222.70
  68.80   124.20   222.70
  50.40   131.30   222.70
  31.70   137.10   222.70
  12.40   141.20   222.70
  -6.20   142.80   222.70
 -23.80   142.10   222.70
 -43.40   142.00   222.70
 -60.60   142.70   222.70
 -81.50   141.20   222.70
-100.40   138.20   222.70
-126.40   126.40   222.70
-138.40   112.10   222.70
-149.60    89.90   222.70
-152.50    67.90   222.70
-140.40    37.60   222.70
-132.50    11.60   222.70
-120.50    -6.30   222.70
-104.70   -19.40   222.70
 -85.80   -38.20   222.70
 -69.60   -46.90   222.70
 -53.70   -55.60   222.70
 -35.80   -60.80   222.70
 -16.20   -60.60   222.70
   0.00   -57.80   222.70
  17.70   -51.30   222.70
  33.20   -44.10   222.70
  49.70   -33.50   222.70
  64.30   -23.40   222.70
  82.20    -8.60   245.00
  93.70    10.70   245.00
 102.00    42.30   245.00
 107.60    78.20   245.00
 101.80    98.30   245.00
  88.40   117.30   245.00
  71.50   128.90   245.00
  52.20   136.00   245.00
  32.00   138.60   245.00
  13.50   140.30   245.00
  -4.90   141.50   245.00
 -23.70   141.80   245.00
 -42.30   142.70   245.00
 -59.90   144.50   245.00
 -79.80   144.00   245.00
-101.80   140.10   245.00
-126.10   130.60   245.00
-141.60   116.70   245.00
-152.80    97.30   245.00
-156.80    69.80   245.00
-143.00    39.70   245.00
-133.70    12.90   245.00
-123.50    -7.60   245.00
-109.20   -26.20   245.00
 -90.40   -42.20   245.00
 -72.70   -50.90   245.00
 -54.40   -58.30   245.00
 -36.00   -61.10   245.00
 -17.50   -61.10   245.00
   0.00   -59.00   245.00
  18.60   -54.00   245.00
  35.20   -46.70   245.00
  52.00   -37.10   245.00
  67.80   -26.00   245.00
  97.50    10.20   267.30
 103.60    44.00   267.30
 112.30    80.10   267.30
 107.20   103.50   267.30
  92.10   122.30   267.30
  74.40   134.20   267.30
  54.30   141.50   267.30
  34.00   141.80   267.30
  14.90   141.90   267.30
  -5.00   142.00   267.30
 -22.50   142.10   267.30
 -41.00   142.90   267.30
 -59.60   143.90   267.30
 -80.20   144.60   267.30
-103.00   141.70   267.30
-126.10   135.20   267.30
-142.10   121.40   267.30
-153.70   103.70   267.30
-159.50    79.50   267.30
-146.00    43.30   267.30
-132.70    12.80   267.30
-127.00    -8.90   267.30
-114.60   -28.60   267.30
 -94.10   -43.90   267.30
 -75.10   -52.60   267.30
 -54.60   -58.60   267.30
 -35.70   -60.60   267.30
 -16.80   -60.70   267.30
   0.00   -59.80   267.30
  18.60   -55.60   267.30
  36.60   -49.50   267.30
  54.40   -41.00   267.30
  72.80   -30.10   267.30
  88.40   -10.90   267.30
 111.30    -2.90   289.50
 123.80     6.50   289.50
 130.10    39.80   289.50
 141.30    78.30   289.50
 124.00    90.10   289.50
 113.80   106.20   289.50
  96.80   123.90   289.50
  76.30   137.70   289.50
  55.40   144.20   289.50
  34.40   143.10   289.50
  14.90   141.70   289.50
  -3.70   141.00   289.50
 -22.40   141.70   289.50
 -42.50   143.60   289.50
 -59.50   143.80   289.50
 -80.80   145.80   289.50
-101.90   145.50   289.50
-126.20   137.70   289.50
-144.30   125.40   289.50
-156.20   105.30   289.50
-160.00    85.10   289.50
-169.10    63.20   289.50
-168.20    35.70   289.50
-166.70    29.40   289.50
-161.30     4.20   289.50
-134.90     2.40   289.50
-127.70   -15.70   289.50
-117.80   -30.50   289.50
 -94.80   -44.20   289.50
 -74.30   -52.00   289.50
 -55.80   -55.80   289.50
 -36.40   -56.10   289.50
 -17.40   -58.60   289.50
  -1.00   -57.70   289.50
  18.30   -53.30   289.50
  35.60   -49.00   289.50
  56.70   -42.70   289.50
  74.20   -33.80   289.50
  91.30   -16.10   289.50
 136.80    -7.20   311.80
 146.40    37.90   311.80
 154.60    72.10   311.80
 131.70    95.70   311.80
 114.80   105.20   311.80
  97.70   120.60   311.80
  77.90   132.20   311.80
  58.70   138.40   311.80
  36.10   139.50   311.80
  15.80   138.30   311.80
  -3.60   138.10   311.80
 -21.90   138.20   311.80
 -41.40   139.70   311.80
 -59.70   140.60   311.80
 -80.40   142.10   311.80
-101.50   139.70   311.80
-122.90   136.50   311.80
-139.10   125.30   311.80
-158.30   108.80   311.80
-167.40    96.60   311.80
-181.60    86.60   311.80
-176.30    34.30   311.80
-168.80   -14.80   311.80
-156.30   -20.60   311.80
-137.40   -19.30   311.80
-118.90   -29.70   311.80
 -95.90   -40.70   311.80
 -73.80   -46.10   311.80
 -55.60   -50.10   311.80
 -37.30   -53.20   311.80
 -17.90   -53.40   311.80
  -0.90   -52.70   311.80
  18.20   -48.70   311.80
  36.20   -45.60   311.80
  56.50   -40.30   311.80
  74.00   -31.40   311.80
  94.40   -16.70   311.80
 115.10   -13.10   311.80
 149.90     0.00   334.10
 159.90    22.50   334.10
 162.00    37.40   334.10
 165.00    50.40   334.10
 149.00    74.30   334.10
 133.10    89.80   334.10
 117.30   101.90   334.10
  94.20   116.30   334.10
  76.70   125.10   334.10
  55.80   131.50   334.10
  36.70   132.20   334.10
  16.10   131.40   334.10
  -2.30   131.20   334.10
 -20.90   132.00   334.10
 -40.90   133.80   334.10
 -60.00   134.90   334.10
 -78.50   135.90   334.10
-100.80   133.80   334.10
-122.10   126.40   334.10
-134.90   121.50   334.10
-154.80   108.40   334.10
-170.80    98.60   334.10
-185.10    86.30   334.10
-194.80    74.80   334.10
-188.50    29.80   334.10
-182.80   -12.80   334.10
-175.60   -15.40   334.10
-161.40   -22.70   334.10
-140.90   -24.80   334.10
-120.30   -28.90   334.10
 -97.30   -34.50   334.10
 -72.80   -37.90   334.10
 -54.50   -41.10   334.10
 -37.10   -42.60   334.10
 -19.30   -45.40   334.10
  -1.90   -43.90   334.10
  17.30   -40.70   334.10
  34.90   -36.70   334.10
  53.80   -31.10   334.10
  72.90   -23.70   334.10
  94.50   -16.70   334.10
 119.10   -14.60   334.10
 116.80    -4.10   356.40
 141.30     9.90   356.40
 153.50    34.00   356.40
 145.20    61.60   356.40
 128.80    82.10   356.40
 116.10    94.00   356.40
  92.00   109.60   356.40
  75.60   118.60   356.40
  57.70   123.80   356.40
  37.80   123.70   356.40
  18.20   121.90   356.40
   0.00   123.10   356.40
 -19.70   124.50   356.40
 -38.60   126.10   356.40
 -56.90   127.80   356.40
 -77.20   128.50   356.40
 -96.40   128.00   356.40
-116.70   118.80   356.40
-128.80   111.90   356.40
-151.80    98.60   356.40
-163.40    90.60   356.40
-188.90    65.10   356.40
-195.40    29.20   356.40
-184.80     0.00   356.40
-163.20   -17.20   356.40
-138.90   -19.50   356.40
-122.90   -21.70   356.40
 -97.30   -24.30   356.40
 -75.20   -28.90   356.40
 -55.50   -32.00   356.40
 -37.10   -34.60   356.40
 -18.50   -36.30   356.40
  -3.10   -35.20   356.40
  16.20   -31.90   356.40
  31.90   -27.80   356.40
  51.50   -20.80   356.40
  73.30   -10.30   356.40
  94.30    -4.90   356.40
  64.40     4.50   378.60
  99.70    17.60   378.60
 113.50    24.10   378.60
 124.20    38.00   378.60
 124.20    52.70   378.60
 118.00    68.10   378.60
 108.10    78.60   378.60
  98.30    88.50   378.60
  85.90   100.60   378.60
  71.90   110.70   378.60
  55.80   114.40   378.60
  38.00   113.50   378.60
  19.00   113.60   378.60
   2.00   113.50   378.60
 -19.20   114.50   378.60
 -34.40   116.00   378.60
 -58.00   119.00   378.60
 -75.50   120.80   378.60
 -95.70   118.20   378.60
-113.50   111.50   378.60
-126.30   102.30   378.60
-138.60    90.00   378.60
-150.90    76.90   378.60
-162.90    62.50   378.60
-169.60    48.60   378.60
-171.10    33.30   378.60
-167.30    17.60   378.60
-155.00     2.70   378.60
-144.30    -5.00   378.60
-122.60    -2.10   378.60
 -98.30   -10.30   378.60
 -76.50   -14.90   378.60
 -58.10   -23.50   378.60
 -36.90   -26.80   378.60
 -19.00   -27.10   378.60
  -3.30   -23.70   378.60
  12.90   -22.30   378.60
  28.90   -17.00   378.60
  46.10    -9.00   378.60
  24.90    -1.70   400.90
  45.80     5.60   400.90
  53.40    18.40   400.90
  63.20    32.20   400.90
  66.40    44.80   400.90
  69.80    67.40   400.90
  63.50    82.70   400.90
  49.30    92.80   400.90
  33.90    98.40   400.90
  19.60   101.10   400.90
   0.00   103.30   400.90
 -18.40   104.30   400.90
 -34.20   105.30   400.90
 -55.10   108.10   400.90
 -72.80   108.00   400.90
 -88.70   105.70   400.90
-102.00   100.30   400.90
-109.80    92.10   400.90
-114.90    71.80   400.90
-117.90    50.10   400.90
-114.40    32.80   400.90
-101.40    17.90   400.90
 -79.80     4.90   400.90
 -59.90    -4.80   400.90
 -53.10   -12.20   400.90
 -40.80   -12.50   400.90
 -22.90   -11.60   400.90
  -7.40   -10.60   400.90
   3.60    -8.90   400.90
  15.60    -4.50   400.90
 -47.90    -2.50   400.90
 -27.90    -2.50   400.90
 -87.90    17.50   400.90
 -67.90    17.50   400.90
 -47.90    17.50   400.90
 -27.90    17.50   400.90
  -7.90    17.50   400.90
  12.10    17.50   400.90
  32.10    17.50   400.90
 -87.90    37.50   400.90
 -67.90    37.50   400.90
 -47.90    37.50   400.90
 -27.90    37.50   400.90
  -7.90    37.50   400.90
  12.10    37.50   400.90
  32.10    37.50   400.90
  52.10    37.50   400.90
-107.90    57.50   400.90
 -87.90    57.50   400.90
 -67.90    57.50   400.90
 -47.90    57.50   400.90
 -27.90    57.50   400.90
  -7.90    57.50   400.90
  12.10    57.50   400.90
  32.10    57.50   400.90
  52.10    57.50   400.90
 -87.90    77.50   400.90
 -67.90    77.50   400.90
 -47.90    77.50   400.90
 -27.90    77.50   400.90
  -7.90    77.50   400.90
  12.10    77.50   400.90
  32.10    77.50   400.90
  52.10    77.50   400.90
 -67.90    97.50   400.90
 -47.90    97.50   400.90
 -27.90    97.50   400.90
