    7.37     1.27   -35.81 
   11.68    -0.51   -35.31 
   10.67     3.56   -35.05 
    7.37     5.59   -35.31 
   15.75    -2.03   -33.27 
   15.49     2.03   -33.53 
   13.72     5.84   -33.78 
   11.43     7.87   -34.04 
    8.13     9.40   -34.04 
   18.54    -4.32   -30.23 
   19.56     0.51   -30.23 
   18.80     4.06   -30.73 
   17.02     7.87   -30.99 
   13.72    11.43   -31.24 
    8.64    13.46   -31.50 
   22.10    -4.32   -25.91 
   22.86     0.00   -26.42 
   21.84     5.33   -27.18 
   20.07     9.40   -27.43 
   17.78    12.45   -27.94 
   13.46    15.24   -28.45 
    9.14    17.02   -28.96 
   24.38    -5.08   -21.84 
   25.15    -0.51   -22.61 
   24.64     5.84   -23.11 
   22.86    11.18   -23.62 
   19.56    15.49   -24.13 
   14.48    18.54   -24.89 
    9.14    19.81   -25.40 
   26.92    -5.84   -16.76 
   27.43    -1.52   -17.02 
   27.69     3.05   -17.27 
   26.92     8.13   -18.03 
   25.15    12.95   -18.54 
   22.86    16.00   -19.30 
   19.05    19.30   -20.07 
   14.48    21.84   -20.57 
    9.40    22.86   -21.08 
   27.94    -6.35   -12.70 
   29.21    -2.29   -12.19 
   29.72     3.30   -12.45 
   28.96     9.40   -13.21 
   27.18    14.22   -13.46 
   24.38    17.78   -14.22 
   19.56    22.10   -15.24 
   13.72    25.15   -15.75 
    8.38    25.91   -16.51 
    8.13    28.19   -11.68 
   28.96    -7.37    -7.62 
   30.73    -2.03    -7.11 
   31.50     4.06    -7.11 
   30.23    10.92    -7.87 
   28.19    15.49    -8.64 
   24.38    20.57    -9.91 
   30.23    -7.87    -2.79 
   31.24    -4.32    -2.03 
   32.00     0.00    -1.52 
   32.51     5.59    -1.78 
   31.24    11.68    -2.29 
   29.21    16.51    -3.56 
   26.67    20.07    -4.32 
   23.11    24.13    -5.08 
   30.48    -7.87     2.03 
   31.50    -3.56     3.05 
   32.51     1.02     3.56 
   32.26     6.60     3.05 
   31.24    12.70     2.29 
   29.21    17.53     1.52 
   26.16    22.10     0.76 
   22.35    26.16    -0.51 
   30.23    -7.11     6.86 
   31.24    -3.05     7.87 
   31.24     2.79     8.38 
   30.99     7.87     8.13 
   29.97    12.95     7.87 
   28.19    18.29     6.35 
   25.40    23.11     5.84 
   21.34    27.18     4.57 
   28.45    -6.86    12.70 
   29.46    -2.79    13.46 
   30.23     2.79    13.72 
   29.72     8.13    13.46 
   28.45    13.97    12.95 
   26.42    19.05    11.43 
   23.62    22.86    10.92 
   20.07    26.67    10.16 
   25.91    -6.35    17.02 
   27.69    -1.78    16.76 
   23.62    -5.84    20.57 
   28.19    -2.29    20.32 
   29.21     2.79    19.30 
   27.18     8.64    18.03 
   25.91    14.73    17.27 
   24.13    20.07    16.76 
   20.57    24.13    14.99 
   17.02    27.69    14.73 
   12.70    29.97    13.97 
    7.87    31.24    14.73 
    2.29    32.26    14.73 
   -2.54    30.23    13.46 
   -6.35    27.69    12.45 
  -10.92    23.62    12.45 
  -14.48    19.81    12.95 
   16.00    29.46    10.41 
   10.92    31.24    10.92 
    5.59    31.75    10.92 
    0.00    32.26    10.16 
   -5.33    29.97     8.38 
   -9.91    26.92     8.38 
  -13.72    23.62     7.62 
  -17.27    19.56     7.87 
   16.51    29.97     4.57 
   11.68    31.75     4.57 
    6.10    32.51     4.57 
    0.76    31.75     4.57 
   -4.32    29.72     3.81 
   -8.64    26.92     3.30 
  -12.95    23.62     3.30 
  -16.26    19.81     2.79 
   17.02    29.21    -1.02 
   11.94    31.24    -1.02 
    6.60    31.50    -1.27 
    1.78    31.24    -1.27 
   -3.05    29.21    -2.03 
   -7.62    26.67    -2.29 
  -11.43    22.86    -2.03 
  -14.99    19.30    -1.78 
   18.03    26.92    -5.84 
   13.46    29.21    -6.35 
    7.37    30.23    -6.60 
    2.54    29.72    -6.86 
   -2.54    27.94    -7.37 
   -6.60    24.89    -7.37 
  -11.18    21.34    -7.62 
  -15.75    17.78    -6.60 
   18.80    24.89   -10.67 
   13.46    27.43   -10.67 
    3.56    27.94   -12.45 
   -1.27    26.16   -12.70 
   -6.35    23.62   -12.70 
  -10.67    19.81   -12.70 
  -14.99    16.00   -12.19 
    4.06    25.40   -17.27 
   -1.52    23.62   -17.27 
   -6.35    21.59   -17.53 
  -10.67    18.29   -17.27 
  -15.24    13.72   -17.27 
    4.32    22.35   -21.59 
    0.25    21.59   -21.84 
   -4.83    20.07   -22.10 
   -9.65    17.02   -22.10 
  -13.72    13.46   -21.84 
  -17.02     8.89   -21.08 
    4.06    19.81   -25.65 
   -0.51    18.80   -26.16 
   -5.33    17.27   -25.91 
   -9.91    13.21   -26.16 
  -14.22     8.89   -25.40 
  -17.27     4.57   -23.37 
    4.32    17.02   -29.46 
   -1.02    16.00   -29.72 
   -5.84    12.45   -29.72 
  -10.16     8.38   -29.21 
  -14.99     3.30   -26.92 
  -17.27     0.25   -24.64 
    3.81    12.70   -32.77 
   -1.52    10.92   -33.02 
   -6.10     7.62   -32.26 
  -11.43     2.79   -30.23 
  -13.46    -2.79   -28.19 
  -16.51    -5.08   -25.15 
    3.56     8.64   -34.80 
   -1.27     3.56   -34.29 
   -6.35     1.27   -33.02 
   -8.89    -2.79   -31.50 
  -10.92    -7.62   -28.19 
  -13.46   -10.41   -25.15 
    2.29     1.78   -35.56 
   -2.79    -0.76   -35.31 
   -6.10    -2.54   -34.04 
   -6.86    -7.11   -31.24 
   -7.62   -11.94   -27.69 
   -9.65   -14.22   -23.88 
    4.06    -1.52   -36.58 
    1.02    -4.06   -35.81 
   -1.78    -7.11   -34.04 
   -3.56   -10.67   -31.24 
    8.64    -3.30   -35.56 
    5.84    -6.35   -34.54 
    2.54    -9.91   -33.27 
    0.76   -13.46   -30.48 
   -3.30   -15.49   -26.92 
   11.94    -5.84   -33.53 
    7.62   -10.67   -32.51 
   11.68   -10.41   -31.24 
   16.00    -7.62   -30.48 
    5.59   -15.24   -29.72 
   10.16   -14.48   -28.45 
   15.75   -12.19   -26.92 
   19.30    -9.40   -26.42 
    2.29   -17.27   -26.42 
    6.86   -18.54   -25.40 
   11.94   -17.27   -24.64 
   17.02   -14.99   -23.37 
   21.84   -10.16   -22.61 
   -4.57   -17.02   -23.37 
   -0.25   -19.81   -22.35 
    4.57   -20.83   -21.34 
    9.91   -20.07   -20.57 
   15.24   -18.29   -19.81 
   20.57   -14.99   -18.29 
   23.88   -10.41   -17.27 
   -2.54   -21.08   -18.54 
    2.54   -22.35   -17.78 
    7.62   -22.61   -16.51 
   13.46   -21.59   -15.75 
   18.29   -18.54   -14.99 
   22.35   -15.24   -13.46 
   25.65   -10.92   -12.19 
    3.81   -23.88   -13.46 
    8.64   -23.88   -11.68 
   13.46   -22.61   -10.92 
   18.80   -19.30   -10.41 
   23.11   -15.75    -8.64 
   26.67   -11.43    -7.37 
   10.92   -23.88    -7.87 
   15.24   -21.84    -6.60 
   19.81   -19.81    -4.06 
   23.88   -15.49    -3.81 
   27.69   -11.43    -2.54 
   18.03   -21.84    -1.02 
   21.84   -18.80     1.02 
   24.89   -15.24     1.02 
   28.19   -11.43     2.54 
   21.59   -19.05     5.84 
   24.89   -15.24     6.60 
   27.69   -11.43     7.37 
   24.13   -14.99    11.68 
   26.67   -11.18    12.19 
   24.89   -10.67    17.53 
  -19.81     2.79   -21.08 
  -19.05     7.62   -18.54 
  -21.34     6.10   -16.26 
  -21.84     1.78   -18.29 
  -17.78    11.94   -15.75 
  -20.83     9.91   -13.21 
  -23.62     5.33   -12.45 
  -23.37     0.76   -14.73 
  -17.78    13.97   -11.43 
  -20.07    12.95    -8.38 
  -22.86     9.14    -9.40 
  -25.40     4.57    -8.38 
  -24.89     0.76   -10.92 
  -26.92     0.25    -7.11 
  -19.05    15.49    -5.59 
  -22.10    12.70    -5.08 
  -24.89     8.38    -5.08 
  -26.92     4.83    -4.06 
  -28.70     0.00    -3.30 
  -20.57    14.99    -1.27 
  -23.37    11.68    -0.25 
  -26.16     7.62    -0.51 
  -28.45     4.32     0.25 
  -29.97     0.25     1.27 
  -18.54    17.53     0.51 
  -21.34    14.73     3.05 
  -23.88    12.19     4.32 
  -26.42     8.13     4.32 
  -28.96     3.81     4.83 
  -30.48    -0.76     5.59 
  -19.05    17.53     5.08 
  -21.08    16.00     7.62 
  -24.13    12.19     8.64 
  -26.92     7.11     8.89 
  -29.46     3.05     8.89 
  -31.50     0.00    10.41 
  -17.53    18.54    10.67 
  -20.83    16.51    11.94 
  -23.62    13.21    12.95 
  -26.67     8.89    13.46 
  -29.46     5.08    13.97 
  -31.24     1.02    15.24 
  -16.26    17.78    13.72 
  -19.56    15.75    15.49 
  -22.10    12.70    17.02 
  -25.65     8.89    17.78 
  -28.96     4.83    18.80 
  -30.73     1.02    19.30 
  -19.30    -2.29   -22.35 
  -18.03    -7.11   -22.10 
  -15.49   -11.18   -22.10 
  -21.34    -3.30   -19.05 
  -20.32    -7.87   -19.56 
  -18.29   -12.19   -19.30 
  -15.75   -15.75   -18.29 
  -23.11    -3.56   -15.75 
  -22.10    -8.38   -16.00 
  -20.57   -12.70   -16.26 
  -18.54   -16.76   -15.75 
  -24.38    -4.57   -12.19 
  -23.62    -8.38   -12.70 
  -22.35   -12.70   -12.19 
  -20.07   -17.02   -11.68 
  -25.65    -4.32    -8.38 
  -24.64    -8.89    -8.38 
  -23.88   -13.21    -8.13 
  -22.10   -17.02    -8.13 
  -27.69    -4.32    -4.32 
  -26.67    -9.14    -4.32 
  -25.65   -13.21    -4.06 
  -24.13   -17.27    -4.06 
  -29.72    -4.32    -0.51 
  -28.70    -9.40    -0.51 
  -27.43   -13.72    -0.25 
  -25.91   -17.53     0.51 
  -30.73    -4.32     3.30 
  -29.97    -8.89     3.56 
  -28.96   -13.72     3.56 
  -27.43   -17.53     4.06 
  -31.24    -4.83     7.62 
  -31.24    -9.40     7.62 
  -30.23   -13.21     7.87 
  -28.45   -17.27     8.89 
  -32.51    -4.06    11.94 
  -32.00    -9.14    11.94 
  -30.99   -13.46    12.19 
  -28.96   -17.27    12.70 
  -32.26    -4.06    16.00 
  -32.26    -8.64    16.00 
  -30.73   -13.21    16.26 
  -29.72   -16.76    17.02 
  -31.50    -3.30    20.57 
  -30.99    -7.87    20.57 
  -30.23   -12.19    21.34 
  -28.96   -16.00    21.34 
  -27.69   -14.73    24.64 
  -13.21   -14.73   -21.34 
   -8.64   -17.27   -21.59 
  -11.43   -17.53   -18.80 
   -6.86   -19.81   -19.05 
  -13.97   -18.80   -16.26 
   -9.14   -20.32   -16.26 
   -5.08   -22.61   -15.49 
  -17.02   -19.81   -13.72 
  -12.45   -21.84   -13.72 
   -8.38   -23.11   -12.70 
  -19.05   -20.83    -9.91 
  -15.75   -23.11   -10.67 
  -10.92   -25.15    -9.91 
  -20.83   -20.83    -6.10 
  -17.27   -23.62    -7.11 
  -13.46   -26.67    -6.35 
  -22.61   -20.83    -2.29 
  -19.05   -23.88    -3.05 
  -15.49   -25.65    -2.29 
  -10.92   -28.45    -2.79 
  -23.62   -21.08     1.27 
  -20.32   -23.88     0.76 
  -17.78   -26.42     1.52 
  -13.21   -28.45     0.76 
  -25.40   -20.57     4.83 
  -21.84   -24.13     4.83 
  -18.80   -26.42     5.59 
  -14.73   -28.45     5.08 
  -25.91   -21.08     9.14 
  -22.86   -23.62     8.64 
  -19.56   -26.16     9.40 
  -15.75   -28.45     9.40 
  -26.92   -20.83    13.21 
  -23.88   -23.62    12.95 
  -20.07   -26.16    13.72 
  -16.26   -28.45    13.97 
  -27.69   -20.32    17.53 
  -24.89   -23.37    17.27 
  -21.08   -25.65    18.03 
  -16.76   -27.18    18.03 
  -26.92   -19.30    21.59 
  -24.13   -22.35    21.59 
  -20.32   -24.64    22.35 
  -16.51   -26.92    22.86 
  -25.91   -18.03    25.15 
  -23.62   -21.34    25.91 
  -19.81   -23.37    26.42 
  -15.49   -25.15    26.16 
   -1.02   -23.88   -14.73 
   -3.56   -24.38   -11.94 
    0.51   -25.40   -10.92 
    5.59   -25.40    -9.40 
   -6.60   -25.91    -9.14 
   -2.03   -26.67    -8.64 
    2.54   -26.92    -7.11 
    7.11   -26.67    -5.84 
   -9.40   -27.69    -6.60 
   -5.08   -28.45    -5.59 
   -0.51   -29.21    -4.57 
    4.57   -28.70    -3.30 
    9.14   -27.18    -2.54 
   -7.62   -29.46    -2.29 
   -3.05   -30.73    -1.27 
    2.03   -30.48    -0.25 
    7.37   -28.96     0.25 
    4.83   -30.48     2.54 
   -9.91   -29.46     1.52 
   -5.33   -30.99     2.54 
   -0.76   -31.50     3.30 
    2.54   -30.99     5.59 
  -11.43   -29.97     5.59 
   -7.37   -31.50     6.60 
   -3.30   -32.00     7.11 
    1.02   -31.75     9.65 
  -11.94   -30.23    10.16 
   -8.13   -31.50    11.18 
   -3.56   -32.00    11.94 
    0.51   -32.51    13.46 
  -12.45   -30.23    14.48 
   -8.64   -30.99    15.24 
   -4.57   -32.00    17.02 
   -0.25   -32.51    17.78 
  -12.95   -29.21    18.54 
   -8.89   -30.48    19.05 
   -4.57   -30.99    21.34 
   -0.76   -31.75    21.84 
  -12.95   -28.45    22.86 
   -8.64   -29.21    23.11 
   -4.83   -29.72    25.91 
   -1.02   -30.48    26.42 
    3.05   -30.73    26.67 
  -12.19   -26.42    26.42 
   -8.64   -27.94    26.67 
   -4.83   -27.18    28.96 
   -0.51   -28.19    29.46 
    3.30   -28.45    30.23 
   12.95   -24.64    -3.05 
   12.45   -26.92     0.25 
   15.75   -25.15     1.78 
   19.05   -22.86     3.81 
    9.91   -28.70     3.56 
   13.97   -26.92     4.83 
   17.27   -25.15     6.86 
   20.32   -22.35     8.89 
   22.61   -19.30    10.67 
    6.86   -30.48     6.86 
   11.43   -28.45     8.13 
   15.24   -26.92    10.41 
   18.29   -24.89    12.70 
   21.34   -21.84    13.97 
   23.37   -18.29    16.00 
   24.38   -14.48    16.26 
    5.08   -30.73    10.41 
    9.65   -29.72    11.94 
   13.72   -28.45    13.72 
   17.02   -26.16    15.75 
   19.81   -24.13    17.78 
   22.10   -20.57    19.30 
    4.57   -31.75    14.73 
    8.38   -30.99    15.49 
   12.95   -29.72    17.78 
   16.26   -27.94    19.30 
   18.54   -25.40    21.84 
   20.57   -22.10    23.37 
    4.06   -32.00    18.54 
    7.87   -31.50    19.81 
   11.94   -30.23    22.10 
   15.49   -27.94    23.62 
   18.03   -24.89    26.16 
   20.57   -21.08    27.43 
    7.37   -31.24    24.64 
   11.43   -29.21    26.16 
   14.73   -26.92    27.69 
    7.11   -29.21    28.70 
   10.67   -27.43    30.48 
   13.97   -25.15    31.75 
   17.53   -22.86    30.48 
   19.81   -19.05    30.99 
    6.86   -27.43    32.00 
   10.67   -25.15    33.78 
   13.21   -22.86    34.80 
   16.76   -20.32    34.04 
   17.78   -16.00    34.04 
   14.48   -19.30    36.58 
   24.13   -16.76    19.56 
   24.38   -12.70    21.34 
   23.37    -9.65    22.86 
   23.11   -18.03    22.86 
   23.88   -14.73    24.64 
   23.37   -10.92    26.16 
   22.35   -17.53    26.92 
   22.35   -12.45    28.96 
   21.34    -8.13    27.69 
   20.32   -15.24    30.73 
